ply
format ascii 1.0
comment VCGLIB generated
element vertex 1743
property float x
property float y
property float z
end_header
-14.2928 -8.60971 -24.0687 
-13.798 -8.24656 -24.0081 
-13.6724 -8.64155 -24.0454 
-13.4337 -8.43221 -24.0578 
-13.4699 -7.84216 -24.2114 
-13.6071 -8.04442 -24.0837 
-13.2477 -8.21399 -24.1467 
-13.2989 -8.86896 -24.052 
-13.0629 -8.63993 -24.0983 
-13.0171 -9.65301 -24.2097 
-12.8909 -9.0642 -24.1007 
-13.1708 -9.29559 -24.0935 
-12.7073 -9.43101 -24.1883 
-14.2013 -8.1418 -23.9261 
-14.4352 -8.32208 -23.9587 
-14.4309 -7.92145 -23.8718 
-14.636 -8.10889 -23.876 
-14.0034 -7.95393 -23.9829 
-14.2584 -7.74186 -23.9651 
-14.9506 -7.62634 -23.7691 
-14.8736 -7.95576 -23.793 
-14.6936 -7.75839 -23.8185 
-14.7939 -7.46578 -23.9442 
-14.5323 -7.58852 -23.9499 
-14.4085 -7.44519 -24.109 
-14.5604 -7.27508 -24.245 
-14.6599 -7.34538 -24.1194 
-14.351 -7.31369 -24.2724 
-14.1303 -7.57195 -24.1116 
-14.0608 -7.41011 -24.2803 
-13.754 -7.58023 -24.2579 
-13.8512 -7.76468 -24.1024 
-15.1632 -7.499 -23.7261 
-15.3481 -7.39322 -23.693 
-15.0119 -7.34548 -23.9547 
-15.2082 -7.2425 -23.966 
-15.5219 -7.32584 -23.6731 
-14.8584 -7.2335 -24.1678 
-13.1183 -10.2959 -25.2648 
-13.319 -10.3649 -25.5751 
-12.9795 -10.3388 -25.4594 
-13.457 -10.333 -25.433 
-13.3299 -10.2544 -25.0475 
-13.6678 -10.3067 -25.2685 
-12.7457 -10.2195 -25.1125 
-12.6135 -10.2775 -25.3578 
-12.9512 -10.157 -24.8459 
-13.8946 -10.2375 -25.0831 
-13.5592 -10.1667 -24.8227 
-13.1796 -10.0456 -24.5873 
-12.8058 -9.88214 -24.4279 
-12.4874 -9.68458 -24.3956 
-12.5808 -10.0222 -24.708 
-12.2679 -9.85746 -24.6778 
-12.2648 -10.1915 -25.2933 
-12.0857 -9.98218 -24.9905 
-12.3859 -10.1122 -25.0098 
-11.9775 -10.0913 -25.2888 
-16.4007 -7.62954 -23.1003 
-16.1496 -7.49496 -23.2798 
-14.3886 -7.17934 -24.417 
-14.4902 -7.04748 -24.5512 
-14.0642 -7.25471 -24.4404 
-14.1162 -7.11044 -24.5941 
-13.7332 -7.24858 -24.5919 
-13.3751 -7.47295 -24.5656 
-13.3983 -7.64998 -24.3771 
-13.7212 -7.40678 -24.4228 
-13.1338 -7.99876 -24.3162 
-13.0755 -7.79456 -24.5361 
-12.9085 -8.40369 -24.2711 
-12.8184 -8.17214 -24.5243 
-12.7751 -7.95722 -24.8122 
-12.5267 -8.32685 -24.8767 
-12.2973 -8.68574 -24.9777 
-12.588 -8.56439 -24.5511 
-12.3683 -8.93002 -24.6374 
-12.498 -9.18423 -24.3526 
-12.703 -8.81532 -24.2728 
-12.274 -9.46097 -24.5414 
-12.1434 -9.22772 -24.8042 
-12.0618 -9.67047 -24.7997 
-11.9389 -9.47445 -25.0232 
-12.0731 -9.00127 -25.123 
-11.8756 -9.28271 -25.2979 
-11.7263 -9.5393 -25.4877 
-11.6464 -9.7803 -25.6775 
-11.7804 -9.68715 -25.2662 
-11.6935 -9.88275 -25.5048 
-11.7955 -9.9874 -25.3673 
-11.8921 -9.83764 -25.0882 
-11.8027 -10.1447 -25.5975 
-11.98 -10.2173 -25.5281 
-11.7038 -10.0782 -25.7109 
-11.895 -10.3052 -25.7793 
-12.0651 -10.3524 -25.7125 
-11.7997 -10.2732 -25.882 
-11.6377 -9.952 -26.0073 
-11.6574 -10.015 -25.8527 
-11.7237 -10.2144 -26.1487 
-11.7512 -10.2469 -26.0092 
-11.9199 -10.4797 -26.1429 
-12.1189 -10.7628 -26.4038 
-11.8787 -10.4748 -26.2806 
-12.1584 -10.7062 -26.2341 
-11.97 -10.4674 -26.0156 
-12.2074 -10.6581 -26.1053 
-12.2045 -10.4887 -25.8458 
-12.2735 -10.6197 -25.9989 
-12.0535 -10.4647 -25.9129 
-12.3392 -10.5948 -25.9264 
-11.6188 -9.88633 -26.159 
-11.6028 -9.81823 -26.3082 
-11.6914 -10.1637 -26.2882 
-11.6609 -10.1002 -26.43 
-11.6269 -9.9483 -26.7298 
-11.6389 -10.0288 -26.5767 
-11.7328 -10.2744 -26.6975 
-11.8408 -10.3769 -26.9766 
-11.7152 -10.1831 -26.8578 
-11.8599 -10.4791 -26.8109 
-11.7674 -10.3529 -26.5509 
-11.9032 -10.5662 -26.6651 
-11.9789 -10.6523 -26.5339 
-11.822 -10.4261 -26.4143 
-14.2364 -12.4249 -26.5895 
-14.3154 -12.3482 -26.8631 
-14.0231 -12.2328 -26.6051 
-14.1015 -12.1693 -26.8354 
-12.9689 -10.4307 -25.6161 
-13.3107 -10.4507 -25.6928 
-12.6052 -10.3753 -25.5528 
-13.0458 -10.5685 -25.7364 
-13.396 -10.5933 -25.7788 
-12.6774 -10.5027 -25.7059 
-12.2615 -10.2992 -25.5184 
-12.3382 -10.4244 -25.693 
-12.4571 -10.5565 -25.8251 
-12.5503 -10.6768 -25.9337 
-12.7868 -10.6495 -25.8256 
-12.8732 -10.7963 -25.9275 
-13.5391 -10.7957 -25.8254 
-13.262 -10.9396 -25.8917 
-13.1696 -10.7489 -25.8217 
-13.718 -11.1052 -25.8068 
-14.2825 -12.3686 -24.9434 
-14.4199 -12.1505 -24.9563 
-14.0784 -12.013 -25.2738 
-14.2178 -11.8033 -25.2874 
-14.1451 -12.4889 -25.0335 
-13.9531 -12.1559 -25.3351 
-13.5935 -11.3455 -25.8267 
-14.0065 -11.4594 -25.5786 
-13.86 -11.6595 -25.5821 
-13.4907 -11.5073 -25.8911 
-13.7422 -11.8187 -25.637 
-13.8581 -12.2466 -25.454 
-13.9926 -12.5828 -25.3815 
-14.0439 -12.5569 -25.1778 
-13.2449 -11.1085 -25.9662 
-12.8764 -10.9238 -26.0275 
-12.5502 -10.7668 -26.0377 
-12.5047 -10.8424 -26.1448 
-12.4618 -10.9196 -26.2628 
-12.455 -11.0052 -26.3808 
-14.1458 -12.4924 -26.2792 
-14.0624 -12.5449 -25.9576 
-14.0051 -12.5769 -25.6499 
-11.9925 -10.5264 -27.0782 
-12.1307 -10.8212 -26.6439 
-12.2777 -10.938 -26.5484 
-12.0494 -10.7298 -26.767 
-12.2832 -10.9489 -26.7371 
-12.2113 -10.8601 -26.8523 
-12.007 -10.6374 -26.9104 
-12.1784 -10.7661 -26.9924 
-14.8961 -12.0441 -24.6591 
-14.6962 -11.9889 -24.8609 
-15.0877 -11.9988 -24.4784 
-14.8556 -11.5581 -25.0345 
-14.719 -11.521 -25.1717 
-14.9923 -11.5158 -24.9145 
-15.3317 -11.7398 -24.0494 
-15.2376 -11.8979 -24.2813 
-15.2079 -11.2564 -24.6136 
-15.1131 -11.4159 -24.7801 
-15.0064 -10.9419 -25.2881 
-15.1008 -10.7794 -25.1885 
-14.9133 -11.0549 -25.3519 
-14.7371 -11.1353 -25.4533 
-14.822 -11.1313 -25.3913 
-15.3557 -11.5233 -23.7645 
-15.2668 -11.0355 -24.3971 
-16.1391 -9.42359 -23.3485 
-16.0413 -9.17803 -23.4507 
-15.7783 -8.74883 -23.6008 
-15.9136 -8.95488 -23.5309 
-15.743 -8.82931 -24.0617 
-15.8438 -8.9895 -24.0301 
-15.6581 -8.55457 -23.6721 
-15.5376 -8.37921 -23.7441 
-15.6536 -8.67796 -24.093 
-15.5654 -8.54441 -24.122 
-15.2427 -8.14962 -23.8858 
-15.4015 -8.22986 -23.816 
-15.3567 -8.38096 -24.1726 
-15.4679 -8.43759 -24.1464 
-15.5427 -8.60046 -24.4616 
-15.4639 -8.5529 -24.4437 
-15.6174 -8.68431 -24.4954 
-15.6813 -8.779 -24.5155 
-15.0536 -8.18158 -23.9516 
-14.8621 -8.30237 -24.0224 
-15.2272 -8.39798 -24.207 
-15.0913 -8.48416 -24.2586 
-14.5729 -8.75033 -24.2329 
-14.6959 -8.48859 -24.1072 
-14.8505 -8.86046 -24.4641 
-14.9611 -8.63499 -24.3365 
-15.2087 -8.75494 -24.6112 
-15.1055 -8.94028 -24.7352 
-15.3058 -8.63656 -24.5324 
-15.3879 -8.56708 -24.4719 
-14.5114 -9.09765 -24.4265 
-14.4741 -9.47589 -24.6599 
-14.7738 -9.17053 -24.665 
-14.7058 -9.51342 -24.9056 
-14.3237 -10.1066 -25.1334 
-14.4239 -9.83044 -24.9049 
-14.4964 -10.0905 -25.371 
-14.6217 -9.83732 -25.1522 
-14.7705 -9.81158 -25.3952 
-14.6156 -10.0448 -25.5924 
-14.8968 -9.5173 -25.1628 
-15.005 -9.21064 -24.9309 
-14.1364 -10.2499 -25.3173 
-13.9155 -10.3065 -25.4647 
-14.3051 -10.221 -25.5283 
-14.0945 -10.2717 -25.6387 
-13.5879 -10.3453 -25.6818 
-13.7148 -10.3228 -25.5835 
-13.8025 -10.3018 -25.7779 
-13.9113 -10.2854 -25.7165 
-14.0659 -10.2407 -25.8321 
-13.9788 -10.2562 -25.8619 
-14.226 -10.2205 -25.7929 
-14.4216 -10.1681 -25.719 
-13.5884 -10.4202 -25.7675 
-13.6808 -10.5484 -25.8275 
-13.8148 -10.361 -25.8394 
-13.9118 -10.4616 -25.8837 
-14.0063 -10.9597 -25.7951 
-13.8295 -10.7307 -25.8487 
-14.217 -10.7769 -25.8488 
-14.0574 -10.6024 -25.8939 
-14.2395 -10.4594 -25.9631 
-14.3827 -10.583 -25.9377 
-14.1012 -10.3606 -25.9483 
-14.0024 -10.2945 -25.9076 
-14.1826 -11.2281 -25.6307 
-14.3554 -11.5124 -25.3934 
-14.3564 -10.9785 -25.7273 
-14.4816 -11.1871 -25.555 
-14.5213 -11.7888 -25.1212 
-14.5984 -11.3826 -25.3575 
-14.663 -11.0308 -25.5846 
-14.5869 -10.8746 -25.7359 
-14.496 -10.7233 -25.8578 
-20.5203 -6.27161 -24.28 
-20.8154 -5.80008 -24.7841 
-20.573 -5.997 -24.9651 
-20.7478 -6.06061 -24.0977 
-20.4481 -6.51227 -23.6067 
-20.6507 -6.28454 -23.4316 
-20.2678 -6.46154 -24.484 
-20.3035 -6.17467 -25.1619 
-20.2238 -6.71809 -23.8064 
-20.248 -6.81785 -22.4796 
-20.5293 -6.45678 -22.8244 
-20.3571 -6.70051 -22.9912 
-20.3885 -6.56224 -22.3145 
-20.0926 -7.05491 -22.664 
-20.167 -6.923 -23.182 
-19.9591 -7.10521 -23.4102 
-19.7125 -7.38671 -23.1687 
-19.9161 -7.25175 -22.8873 
-19.7333 -7.22811 -23.6893 
-19.9852 -6.88724 -24.0353 
-19.7391 -7.00492 -24.2982 
-20.0242 -6.32725 -25.3637 
-19.7416 -6.73817 -24.9401 
-20.0037 -6.62039 -24.7055 
-19.7524 -6.44887 -25.5598 
-20.6836 -6.21087 -22.6678 
-20.5203 -6.30975 -22.1494 
-20.8247 -6.04969 -23.2763 
-20.8203 -5.93481 -22.5395 
-20.6424 -6.02885 -22.0089 
-20.9722 -5.78362 -23.1521 
-21.0136 -5.58976 -24.6297 
-20.937 -5.83855 -23.9414 
-21.1721 -5.34899 -24.5039 
-21.0916 -5.58508 -23.8169 
-21.2156 -5.27986 -23.7298 
-21.3883 -4.70797 -24.3464 
-21.2955 -5.06074 -24.4088 
-21.3128 -4.90254 -23.6858 
-21.0953 -5.4622 -23.0704 
-21.1962 -5.06133 -23.0424 
-20.7536 -5.68802 -21.9175 
-21.0418 -5.18039 -22.4392 
-20.9396 -5.60063 -22.4573 
-20.8529 -5.25574 -21.8999 
-21.1273 -4.64611 -22.5031 
-20.9391 -4.70049 -21.9806 
-21.2772 -4.5569 -23.0793 
-21.1873 -4.04974 -22.6193 
-21.0034 -4.07929 -22.1236 
-21.3301 -3.99469 -23.1578 
-21.4552 -4.27362 -24.3186 
-21.387 -4.43277 -23.6906 
-21.4907 -3.79112 -24.3117 
-21.4314 -3.90989 -23.7263 
-21.4388 -3.37327 -23.7751 
-21.4447 -2.81532 -24.3053 
-21.489 -3.29388 -24.3119 
-21.4024 -2.86223 -23.8191 
-21.3471 -3.42048 -23.2546 
-21.32 -2.88005 -23.3463 
-21.0367 -3.44917 -22.2928 
-21.1963 -2.87846 -22.8897 
-21.2132 -3.44321 -22.7581 
-21.0301 -2.86716 -22.4521 
-21.128 -2.40743 -22.9845 
-20.9747 -2.39029 -22.5654 
-21.241 -2.41919 -23.4095 
-21.0147 -2.01843 -23.0423 
-20.8765 -2.0043 -22.6348 
-21.1156 -2.0303 -23.4427 
-21.3521 -2.38884 -24.2782 
-21.3151 -2.41613 -23.8405 
-21.1815 -2.0318 -23.8382 
-20.7417 -1.69495 -22.6625 
-20.8628 -1.69975 -23.0627 
-19.4947 -6.80486 -25.1834 
-19.5054 -6.53371 -25.7394 
-19.4929 -7.05635 -24.5997 
-19.264 -6.83208 -25.4154 
-19.2805 -6.58728 -25.8945 
-19.2527 -7.05937 -24.9065 
-19.4755 -7.43813 -23.5279 
-19.4898 -7.27263 -24.033 
-19.222 -7.42972 -23.9146 
-19.2408 -7.26122 -24.3966 
-18.9984 -7.21629 -24.7356 
-18.7329 -7.32828 -24.5712 
-18.9688 -7.3852 -24.279 
-18.7749 -7.16028 -25.0053 
-19.0252 -7.0318 -25.1851 
-18.8165 -6.99147 -25.402 
-19.0751 -6.6151 -26.0174 
-18.8546 -6.81466 -25.7655 
-19.0503 -6.83148 -25.6161 
-18.8865 -6.6227 -26.1002 
-20.6055 -5.70693 -25.6161 
-20.8486 -5.51805 -25.4524 
-20.3356 -5.87885 -25.7869 
-20.6138 -5.41875 -26.2101 
-20.8459 -5.23257 -26.0744 
-20.3569 -5.5902 -26.3433 
-19.7835 -6.15806 -26.1022 
-20.056 -6.03037 -25.9529 
-19.8233 -5.88004 -26.5643 
-20.0888 -5.74471 -26.4645 
-20.1127 -5.48519 -26.8901 
-19.884 -5.4196 -27.2354 
-19.8606 -5.62912 -26.943 
-20.1174 -5.26675 -27.2212 
-20.36 -5.32486 -26.8153 
-20.3375 -5.09896 -27.1872 
-20.806 -4.96168 -26.6219 
-20.5418 -4.91745 -27.1353 
-20.594 -5.14981 -26.7241 
-20.7274 -4.72341 -27.0667 
-21.3299 -4.81199 -25.0805 
-21.4196 -4.48159 -25.0005 
-21.2072 -5.08515 -25.1833 
-21.3174 -4.54895 -25.7178 
-21.405 -4.23764 -25.6227 
-21.196 -4.81019 -25.8262 
-21.048 -5.31565 -25.3077 
-21.0394 -5.03389 -25.9458 
-20.9875 -4.76214 -26.5142 
-20.8917 -4.51807 -26.9833 
-21.1379 -4.54073 -26.4038 
-21.0321 -4.29339 -26.8874 
-21.3428 -3.99035 -26.1872 
-21.2566 -4.28695 -26.2938 
-21.4981 -3.17463 -24.8576 
-21.4481 -2.72962 -24.8022 
-21.5076 -3.63414 -24.9011 
-21.4683 -3.02829 -25.3846 
-21.4825 -3.4523 -25.4673 
-21.4801 -4.07938 -24.9447 
-21.4608 -3.86375 -25.5429 
-21.3961 -3.64043 -26.087 
-21.4159 -3.25896 -25.983 
-19.5352 -6.25849 -26.223 
-19.3084 -6.33287 -26.3149 
-19.5741 -5.99398 -26.6332 
-19.3411 -6.08484 -26.6747 
-18.9092 -6.40841 -26.4103 
-19.1007 -6.38243 -26.3775 
-19.1243 -6.15098 -26.6922 
-19.1433 -5.93822 -26.9577 
-19.3719 -5.85921 -26.9721 
-19.3942 -5.67196 -27.2051 
-19.6401 -5.5563 -27.2286 
-19.6123 -5.75498 -26.9688 
-19.8469 -7.30427 -22.5236 
-19.6648 -7.45971 -22.7916 
-19.9958 -7.09246 -22.3055 
-19.7478 -7.29079 -22.2831 
-19.5841 -7.46958 -22.5278 
-19.8756 -7.06633 -22.0704 
-20.2334 -6.58582 -21.9405 
-20.1214 -6.84581 -22.1176 
-20.0672 -6.55661 -21.6787 
-19.9784 -6.81524 -21.8742 
-19.8202 -6.757 -21.718 
-19.7146 -6.45614 -21.397 
-19.8932 -6.50369 -21.5054 
-19.6478 -6.70192 -21.6178 
-19.7307 -7.00715 -21.9229 
-19.5599 -6.94558 -21.827 
-19.4644 -7.4388 -22.3476 
-19.4456 -7.17795 -22.0272 
-19.6152 -7.23934 -22.1297 
-19.2994 -7.38984 -22.2208 
-20.3417 -6.33401 -21.7545 
-20.4451 -6.05595 -21.5902 
-20.1529 -6.30948 -21.4683 
-20.2354 -6.03784 -21.2773 
-20.6325 -5.28342 -21.4476 
-20.5424 -5.71722 -21.4777 
-20.3913 -5.277 -21.0903 
-20.3149 -5.70569 -21.1399 
-20.08 -5.67086 -20.9059 
-19.8887 -5.21617 -20.6923 
-20.1398 -5.25006 -20.8359 
-19.8468 -5.63018 -20.7775 
-20.0206 -5.99628 -21.0642 
-19.8079 -5.95301 -20.9448 
-19.7659 -6.21742 -21.1619 
-19.9592 -6.262 -21.2757 
-20.7142 -4.72011 -21.5302 
-20.7786 -4.08758 -21.6836 
-20.4646 -4.71577 -21.1628 
-20.5263 -4.08344 -21.3118 
-20.82 -2.85584 -22.0361 
-20.8168 -3.44606 -21.8662 
-20.5799 -2.85133 -21.6569 
-20.5676 -3.44148 -21.4917 
-20.3029 -3.44302 -21.1824 
-20.0649 -2.89006 -21.0693 
-20.3236 -2.86045 -21.3296 
-20.0366 -3.45828 -20.9518 
-20.2597 -4.07574 -21.0203 
-19.9921 -4.07331 -20.8216 
-19.94 -4.67824 -20.721 
-20.2025 -4.69822 -20.8894 
-20.7793 -2.37717 -22.1515 
-20.699 -1.996 -22.218 
-20.5546 -2.37444 -21.762 
-20.4951 -2.00054 -21.819 
-20.438 -1.47 -22.2261 
-20.5838 -1.69829 -22.241 
-20.2831 -1.51654 -21.8245 
-20.4051 -1.71938 -21.8399 
-20.2217 -1.76784 -21.5011 
-20.0185 -1.68815 -21.2958 
-20.1315 -1.5985 -21.4984 
-20.0356 -1.82231 -21.2309 
-20.2776 -2.02494 -21.465 
-20.0559 -2.06845 -21.1744 
-20.0684 -2.42557 -21.132 
-20.3134 -2.38845 -21.4158 
-18.9352 -7.53875 -23.8269 
-18.6931 -7.50262 -24.0954 
-19.1903 -7.55697 -23.4894 
-18.8926 -7.66038 -23.4133 
-18.6573 -7.65241 -23.6349 
-19.1365 -7.64365 -23.1266 
-19.4397 -7.53728 -23.1289 
-19.3737 -7.58363 -22.8202 
-19.2686 -7.59071 -22.5861 
-19.1158 -7.57209 -22.4105 
-19.0514 -7.69049 -22.832 
-18.9201 -7.70582 -22.6053 
-18.627 -7.74678 -23.2467 
-18.7376 -7.77219 -22.8142 
-18.8361 -7.73354 -23.0724 
-18.6072 -7.78259 -22.99 
-19.8821 -5.26581 -27.4385 
-20.0927 -5.10433 -27.4492 
-19.6475 -5.41274 -27.4115 
-19.9932 -1.49825 -21.4313 
-19.8905 -1.65941 -21.1782 
-20.128 -1.37759 -21.7723 
-19.8189 -1.44583 -21.3497 
-19.7149 -1.64817 -21.0738 
-19.5179 -1.6545 -21.0283 
-19.4056 -1.39582 -21.2999 
-19.621 -1.41997 -21.3036 
-19.3062 -1.64859 -21.042 
-18.6778 -6.79326 -25.8435 
-18.7121 -6.6156 -26.135 
-18.6331 -6.95621 -25.5237 
-18.5053 -6.7655 -25.8654 
-18.5395 -6.59596 -26.1306 
-18.4583 -6.92084 -25.5727 
-18.531 -7.28267 -24.741 
-18.5826 -7.11562 -25.1611 
-18.3448 -7.24078 -24.8211 
-18.4032 -7.07494 -25.2316 
-18.2184 -7.03091 -25.2451 
-17.9463 -7.13774 -24.8429 
-18.156 -7.195 -24.8442 
-18.01 -6.97616 -25.2299 
-18.2754 -6.88019 -25.5711 
-18.0677 -6.82907 -25.5412 
-18.1157 -6.68381 -25.8024 
-18.3228 -6.72961 -25.8465 
-18.4827 -7.46855 -24.2485 
-18.4458 -7.63835 -23.7457 
-18.2878 -7.43132 -24.3201 
-18.2451 -7.61256 -23.788 
-18.4601 -7.8121 -22.9206 
-18.4286 -7.75715 -23.2946 
-18.2599 -7.81663 -22.8578 
-18.2297 -7.7505 -23.2838 
-18.0192 -7.71264 -23.2823 
-17.8047 -7.7216 -22.8673 
-18.0384 -7.78172 -22.8378 
-17.7962 -7.6518 -23.3084 
-18.042 -7.56944 -23.804 
-17.8259 -7.50896 -23.8237 
-17.8805 -7.32647 -24.3547 
-18.0924 -7.3857 -24.3443 
-19.2353 -7.13462 -21.9396 
-19.083 -7.34519 -22.1176 
-19.3621 -6.91228 -21.7468 
-18.9802 -7.07836 -21.8876 
-18.8159 -7.28351 -22.0539 
-19.1285 -6.87045 -21.7044 
-19.5347 -6.44306 -21.3298 
-19.4623 -6.68086 -21.5424 
-19.3318 -6.42838 -21.3165 
-19.248 -6.65532 -21.5118 
-18.9891 -6.58682 -21.5459 
-18.7704 -6.25007 -21.5028 
-19.0843 -6.37607 -21.3699 
-18.6699 -6.43684 -21.6648 
-18.8501 -6.7833 -21.7222 
-18.5234 -6.6085 -21.8221 
-18.4987 -7.18349 -22.0458 
-18.3386 -6.78084 -21.9724 
-18.6759 -6.97815 -21.892 
-18.1019 -6.99472 -22.1237 
-19.5784 -6.20156 -21.1119 
-19.6044 -5.92978 -20.9129 
-19.3732 -6.18504 -21.1251 
-19.3881 -5.90585 -20.9528 
-19.6486 -5.1889 -20.6672 
-19.6241 -5.60109 -20.7567 
-19.4029 -5.16223 -20.7263 
-19.3927 -5.57139 -20.8148 
-19.1335 -5.52888 -20.9233 
-18.8298 -5.08655 -20.9582 
-19.1355 -5.13012 -20.8348 
-18.8271 -5.46134 -21.0534 
-19.1371 -5.86052 -21.0486 
-18.8294 -5.77305 -21.1844 
-18.817 -6.03238 -21.3384 
-19.1272 -6.13844 -21.2008 
-19.6891 -4.66661 -20.6685 
-19.7368 -4.085 -20.728 
-19.4349 -4.65894 -20.7024 
-19.4779 -4.10382 -20.7211 
-19.8174 -2.94698 -20.8911 
-19.7825 -3.49486 -20.813 
-19.5597 -3.01087 -20.7975 
-19.521 -3.53922 -20.76 
-19.2323 -3.57783 -20.7868 
-18.8845 -3.07037 -20.9089 
-19.2698 -3.06138 -20.7913 
-18.9085 -3.6246 -20.8992 
-19.1997 -4.12281 -20.7825 
-18.8895 -4.14184 -20.897 
-18.8569 -4.63793 -20.9113 
-19.1625 -4.65084 -20.7932 
-19.8325 -2.49216 -20.9296 
-19.8391 -2.13033 -20.9655 
-19.5891 -2.56452 -20.8117 
-19.6177 -2.19397 -20.8387 
-19.8488 -1.86142 -21.0357 
-19.6537 -1.89304 -20.9148 
-19.4425 -1.92502 -20.8676 
-19.2164 -1.92839 -20.8928 
-19.3816 -2.24277 -20.7944 
-19.1268 -2.2452 -20.8323 
-19.0279 -2.609 -20.8405 
-19.3218 -2.61896 -20.7814 
-18.5692 -7.79031 -22.6491 
-18.7274 -7.69798 -22.4462 
-18.3538 -7.78245 -22.5599 
-18.4904 -7.66726 -22.3521 
-18.9062 -7.54129 -22.2778 
-18.6485 -7.49038 -22.1961 
-18.3512 -7.41143 -22.1738 
-18.0432 -7.32973 -22.2173 
-18.2256 -7.61397 -22.3203 
-17.9529 -7.55124 -22.3524 
-17.8652 -7.68498 -22.5588 
-18.1143 -7.74312 -22.5294 
-17.0407 -4.76936 -22.6327 
-17.1736 -5.09398 -22.6241 
-16.9584 -4.86458 -22.8861 
-17.2451 -5.01962 -22.3451 
-17.1422 -4.65709 -22.3218 
-17.3275 -4.92674 -22.0172 
-16.9302 -4.55985 -22.8833 
-16.8363 -4.69807 -23.0913 
-17.0469 -4.40311 -22.613 
-17.3404 -4.33729 -21.8294 
-17.412 -4.79468 -21.7192 
-17.2473 -4.51675 -22.0289 
-17.49 -4.60281 -21.5295 
-17.2682 -4.04719 -22.1418 
-17.1664 -4.23114 -22.3445 
-17.1299 -3.97709 -22.5934 
-17.1973 -3.58009 -22.4927 
-17.2337 -3.77922 -22.3888 
-17.0985 -3.79385 -22.7028 
-17.0039 -4.19047 -22.8343 
-16.9753 -4.04485 -22.9289 
-16.7729 -4.58895 -23.2233 
-16.8472 -4.30138 -23.1301 
-16.8776 -4.40067 -23.061 
-16.7337 -4.53172 -23.2656 
-17.4057 -4.10766 -21.799 
-17.5527 -4.33046 -21.527 
-17.46 -3.86177 -21.8528 
-17.6087 -4.0309 -21.6168 
-17.332 -3.85456 -22.0689 
-17.3776 -3.6608 -22.0664 
-17.6129 -3.43644 -21.9059 
-17.6665 -3.75736 -21.704 
-17.5201 -3.63353 -21.906 
-17.7144 -3.56286 -21.7583 
-17.4954 -3.2951 -22.0421 
-17.4247 -3.47349 -22.0746 
-17.3537 -3.33369 -22.1548 
-17.2885 -3.11038 -22.0439 
-17.3901 -3.18668 -22.0861 
-17.2841 -3.23085 -22.1328 
-17.3275 -3.47188 -22.2047 
-17.2765 -3.32901 -22.2255 
-17.2521 -3.43529 -22.3395 
-17.2935 -3.61561 -22.271 
-18.7044 -2.48817 -20.991 
-18.514 -2.77755 -21.1197 
-18.849 -2.16973 -20.9524 
-18.37 -2.3166 -21.1818 
-18.1703 -2.56656 -21.3167 
-18.5555 -2.04788 -21.1164 
-19.0865 -1.60064 -21.115 
-18.9765 -1.87413 -20.9888 
-18.8508 -1.52541 -21.2238 
-18.7204 -1.7815 -21.126 
-18.4457 -1.66973 -21.2749 
-18.2984 -1.35214 -21.4549 
-18.5908 -1.43766 -21.3449 
-18.1503 -1.55805 -21.4058 
-18.2539 -1.91114 -21.286 
-17.9493 -1.77759 -21.4284 
-17.8422 -2.3921 -21.4858 
-17.7343 -2.00804 -21.5016 
-18.0433 -2.15442 -21.3617 
-17.5442 -2.24667 -21.6044 
-16.9363 -5.20647 -22.9677 
-17.1292 -5.50727 -22.7724 
-17.0239 -5.42054 -22.8568 
-17.1014 -5.38529 -22.8146 
-16.9023 -5.06008 -23.0237 
-17.0955 -5.26295 -22.8292 
-16.8184 -5.10586 -23.0704 
-16.906 -5.34388 -22.9397 
-16.7793 -4.9401 -23.1567 
-17.1216 -5.17046 -22.7756 
-16.911 -4.9538 -23.0065 
-16.7856 -4.81449 -23.173 
-16.7115 -4.73659 -23.2706 
-16.6545 -4.70416 -23.2945 
-16.6934 -4.87977 -23.2297 
-16.6114 -4.85761 -23.243 
-16.787 -5.29742 -22.9907 
-16.6064 -5.03096 -23.1373 
-16.7186 -5.05466 -23.1275 
-16.6414 -5.26313 -23.0034 
-19.1788 -1.34852 -21.3458 
-19.251 -1.12632 -21.6492 
-18.933 -1.28756 -21.4227 
-18.9763 -1.07518 -21.6927 
-18.6755 -1.0288 -21.7494 
-18.3458 -0.991598 -21.8053 
-18.3547 -1.16257 -21.5968 
-18.6608 -1.22241 -21.5125 
-16.803 -4.27156 -23.0547 
-16.6845 -4.5209 -23.2019 
-16.9235 -3.99193 -22.8402 
-16.7482 -4.2975 -22.8677 
-16.6296 -4.55217 -23.0503 
-16.853 -4.00802 -22.6179 
-17.1194 -3.4965 -22.3756 
-17.0331 -3.72068 -22.5999 
-17.0097 -3.49018 -22.1099 
-16.9412 -3.72512 -22.3492 
-16.8301 -3.77471 -22.0149 
-16.7347 -3.5563 -21.4224 
-16.8782 -3.52287 -21.768 
-16.7075 -3.83698 -21.6614 
-16.7686 -4.06946 -22.312 
-16.6748 -4.15255 -21.972 
-16.5732 -4.62126 -22.8288 
-16.6184 -4.46188 -22.2911 
-16.6856 -4.36551 -22.6022 
-16.5197 -4.72385 -22.5556 
-17.1695 -3.35805 -22.2086 
-17.1914 -3.26616 -22.086 
-17.0558 -3.34458 -21.9483 
-17.0811 -3.24744 -21.8474 
-17.1825 -3.06539 -21.9215 
-17.1931 -3.18167 -21.9947 
-17.0755 -3.03483 -21.7563 
-17.0876 -3.15787 -21.7905 
-16.9745 -3.13119 -21.5703 
-16.8901 -2.97079 -21.4592 
-16.9711 -3.00185 -21.5861 
-16.8611 -3.06742 -21.3796 
-16.9543 -3.23693 -21.5706 
-16.8198 -3.19727 -21.3153 
-16.7749 -3.35164 -21.3183 
-16.9209 -3.35555 -21.6282 
-17.4528 -1.88384 -21.572 
-17.2906 -2.12279 -21.6496 
-17.647 -1.6653 -21.5108 
-17.1941 -1.78622 -21.5873 
-17.0659 -2.02916 -21.6318 
-17.3593 -1.57576 -21.5506 
-17.9656 -1.28361 -21.5302 
-17.8318 -1.46571 -21.4891 
-17.6338 -1.23757 -21.5822 
-17.5205 -1.39529 -21.541 
-17.2469 -1.34936 -21.5776 
-17.1452 -1.22563 -21.6506 
-17.3447 -1.21955 -21.622 
-17.0245 -1.31105 -21.6174 
-17.0987 -1.51047 -21.5652 
-16.8765 -1.46354 -21.576 
-16.8541 -1.97447 -21.5611 
-16.739 -1.67828 -21.5223 
-16.9533 -1.71959 -21.5616 
-16.608 -1.98948 -21.4185 
-16.4514 -5.01287 -23.0982 
-16.4437 -5.223 -22.9714 
-16.5 -4.85211 -23.1968 
-16.2952 -5.01262 -23.0187 
-16.2507 -5.19203 -22.9067 
-16.3814 -4.87134 -23.0972 
-16.5806 -4.70127 -23.2403 
-16.5001 -4.73066 -23.1173 
-16.4233 -4.79509 -22.9348 
-16.3606 -4.89731 -22.7021 
-16.278 -4.92336 -22.9508 
-16.2001 -5.0169 -22.7615 
-16.1193 -5.18524 -22.8212 
-16.0975 -5.11724 -22.7644 
-16.1793 -5.04244 -22.9074 
-16.0663 -5.20273 -22.7419 
-15.7838 -4.93001 -20.7639 
-16.0742 -5.23492 -21.2907 
-15.7525 -5.29218 -21.014 
-16.096 -4.87716 -21.0292 
-15.7892 -4.49209 -20.5501 
-16.0796 -4.44191 -20.7905 
-15.4199 -4.94254 -20.5653 
-15.3677 -5.2996 -20.805 
-15.461 -4.51528 -20.3705 
-15.8346 -3.53361 -20.3906 
-16.0579 -3.96976 -20.6192 
-15.7968 -4.01457 -20.4124 
-16.0639 -3.5013 -20.5597 
-15.5939 -3.57093 -20.2619 
-15.512 -4.04801 -20.2572 
-15.2311 -4.0459 -20.1912 
-15.1618 -3.53231 -20.279 
-15.3627 -3.58118 -20.2119 
-14.9815 -3.98407 -20.2525 
-15.1312 -4.49563 -20.2884 
-14.8357 -4.41728 -20.3406 
-14.9711 -5.2547 -20.6992 
-14.7159 -4.81368 -20.5111 
-15.0491 -4.90652 -20.4691 
-14.6139 -5.15499 -20.7322 
-15.9306 -3.08536 -20.5246 
-16.1309 -3.07714 -20.6565 
-16.0705 -2.66915 -20.763 
-16.2472 -2.69136 -20.8624 
-15.7276 -3.11423 -20.4214 
-15.8948 -2.6874 -20.6788 
-16.4122 -1.94279 -21.3246 
-16.4014 -2.33802 -21.13 
-16.2401 -2.2843 -21.0548 
-16.2534 -1.95856 -21.2611 
-16.0771 -2.29992 -20.9777 
-15.9391 -2.32774 -20.935 
-16.0174 -2.06116 -21.1765 
-16.1175 -2.00626 -21.211 
-15.8519 -2.3015 -20.9737 
-15.7395 -2.70023 -20.6466 
-15.6239 -2.6595 -20.7054 
-15.3849 -3.08028 -20.4519 
-15.5397 -3.12534 -20.3846 
-16.5598 -1.65664 -21.4969 
-16.7042 -1.4291 -21.6043 
-16.4024 -1.67012 -21.4723 
-16.5519 -1.43063 -21.6294 
-17.0705 -1.15634 -21.719 
-16.8667 -1.26347 -21.6791 
-16.9584 -1.09309 -21.8312 
-16.7292 -1.23618 -21.7505 
-16.5676 -1.25875 -21.8197 
-16.3896 -1.49163 -21.6307 
-16.1807 -1.6473 -21.5661 
-16.0782 -1.88404 -21.3401 
-16.2536 -1.73418 -21.4353 
-15.4972 -5.84698 -21.7343 
-15.7661 -5.87378 -22.1338 
-15.4929 -5.97118 -21.9573 
-15.7776 -5.75512 -21.9505 
-15.5688 -5.71571 -21.5014 
-15.8656 -5.63502 -21.7499 
-15.139 -5.88129 -21.5618 
-15.139 -6.00612 -21.8163 
-15.1972 -5.74074 -21.3064 
-15.9809 -5.47458 -21.5304 
-15.6674 -5.54243 -21.2605 
-15.2834 -5.55626 -21.0531 
-14.8833 -5.51634 -20.9446 
-14.5213 -5.42295 -20.9718 
-14.8059 -5.71203 -21.2025 
-14.4502 -5.63151 -21.2273 
-14.7624 -5.98802 -21.7446 
-14.4128 -5.79464 -21.4962 
-14.7589 -5.86239 -21.47 
-14.4214 -5.92629 -21.7759 
-18.007 -1.11752 -21.6574 
-17.984 -0.967998 -21.8467 
-17.6557 -1.09539 -21.6978 
-17.3385 -1.10432 -21.7218 
-15.8413 -2.15492 -21.1405 
-15.5673 -2.51704 -20.8947 
-14.9039 -3.19058 -20.8323 
-15.0121 -3.39225 -20.5015 
-15.2809 -2.94065 -20.6609 
-14.7909 -3.83836 -20.4789 
-14.6494 -3.63497 -20.8209 
-14.6107 -4.2644 -20.5638 
-14.4448 -4.05962 -20.9076 
-14.5475 -3.4001 -21.2292 
-14.2434 -3.58496 -21.755 
-14.3262 -3.8256 -21.3215 
-14.1547 -4.22234 -21.4779 
-13.9348 -4.35119 -22.1022 
-14.0669 -3.98549 -21.9115 
-14.024 -4.57927 -21.6745 
-14.2828 -4.45223 -21.0662 
-14.1563 -4.80046 -21.2701 
-14.3476 -4.99798 -20.9392 
-14.4652 -4.6558 -20.727 
-14.2516 -5.27636 -21.1711 
-14.0582 -5.09201 -21.493 
-14.1852 -5.50111 -21.4186 
-13.9953 -5.33514 -21.7284 
-13.836 -4.67175 -22.3058 
-13.925 -4.88533 -21.8877 
-13.778 -4.95373 -22.5131 
-13.8648 -5.14791 -22.1092 
-13.8503 -5.37441 -22.3307 
-13.8142 -5.42812 -22.9032 
-13.7683 -5.20366 -22.7153 
-13.8884 -5.57221 -22.5439 
-13.9744 -5.53815 -21.9702 
-14.0024 -5.70932 -22.212 
-14.1741 -5.83037 -21.9438 
-14.1566 -5.68239 -21.6775 
-13.7751 -4.46673 -22.6974 
-13.7193 -4.7669 -22.8924 
-13.7137 -5.01324 -23.9157 
-13.6795 -4.87955 -23.4263 
-13.7289 -5.14741 -23.5916 
-13.7617 -5.28611 -23.2533 
-13.7124 -5.03841 -23.0803 
-14.2456 -5.9552 -22.2135 
-14.4881 -6.04043 -22.0637 
-14.086 -5.85693 -22.4475 
-14.3801 -6.07141 -22.4592 
-14.6122 -6.1468 -22.328 
-14.2375 -5.99715 -22.6612 
-13.9233 -5.63365 -23.0678 
-13.9862 -5.74871 -22.7406 
-14.1 -5.83073 -23.2171 
-14.1542 -5.91882 -22.9181 
-14.403 -6.09742 -23.0735 
-14.7103 -6.25985 -23.5255 
-14.3487 -6.02985 -23.3592 
-14.7489 -6.30166 -23.1809 
-14.4694 -6.14615 -22.8377 
-14.7963 -6.32005 -22.9596 
-14.793 -6.25512 -22.5369 
-14.8782 -6.33364 -22.7861 
-14.5866 -6.19351 -22.6539 
-14.9682 -6.34332 -22.6706 
-13.8741 -5.51483 -23.4038 
-13.8388 -5.39433 -23.7402 
-14.0444 -5.72723 -23.5457 
-13.9964 -5.61613 -23.8862 
-13.8109 -5.15658 -24.3794 
-13.8177 -5.27422 -24.0682 
-13.9484 -5.39548 -24.5369 
-13.9645 -5.50528 -24.2211 
-14.1406 -5.7008 -24.3837 
-14.3025 -5.75744 -24.8675 
-14.1158 -5.5972 -24.6985 
-14.3324 -5.85516 -24.5656 
-14.1886 -5.80864 -24.0439 
-14.3938 -5.96034 -24.2361 
-14.503 -6.0843 -23.8923 
-14.2676 -5.92596 -23.6925 
-13.9477 -5.28752 -24.82 
-13.9593 -5.18275 -25.0692 
-14.1109 -5.38803 -25.2131 
-14.2859 -5.55112 -25.3506 
-14.2877 -5.65587 -25.1281 
-14.1068 -5.49262 -24.9745 
-15.5965 -6.12326 -22.1679 
-15.8806 -6.02985 -22.3011 
-15.2272 -6.14349 -22.0668 
-15.7784 -6.30063 -22.3595 
-16.0943 -6.22256 -22.4457 
-15.3731 -6.28901 -22.3018 
-14.8365 -6.10954 -22.0234 
-14.9638 -6.22853 -22.2834 
-15.1268 -6.34659 -22.5015 
-15.2525 -6.44472 -22.6857 
-15.5461 -6.43832 -22.5101 
-15.6868 -6.57612 -22.691 
-16.3803 -6.45109 -22.5607 
-16.2001 -6.69767 -22.6709 
-16.0093 -6.5007 -22.5254 
-16.7493 -6.74938 -22.6367 
-17.7537 -7.27058 -22.3326 
-17.7401 -6.95497 -22.3115 
-17.4614 -7.21211 -22.4779 
-17.4513 -6.91116 -22.458 
-17.6921 -7.49221 -22.4499 
-17.4185 -7.42118 -22.5839 
-16.76 -7.02061 -22.7219 
-17.1492 -6.84995 -22.5745 
-17.145 -7.13243 -22.6108 
-16.7288 -7.18312 -22.8532 
-17.1076 -7.32247 -22.7252 
-17.054 -7.42443 -22.9173 
-16.6479 -7.27302 -23.3154 
-16.6847 -7.26799 -23.0452 
-17.0084 -7.43597 -23.2 
-17.3584 -7.53789 -22.7773 
-17.3087 -7.55852 -23.0715 
-17.5678 -7.65047 -22.9528 
-17.621 -7.62066 -22.6496 
-16.2617 -6.86573 -22.8016 
-15.7359 -6.68708 -22.8442 
-16.2516 -6.99018 -22.9469 
-15.7338 -6.76652 -23.0009 
-15.268 -6.50394 -22.8443 
-15.2333 -6.53499 -23.0096 
-15.2086 -6.54865 -23.2139 
-15.2238 -6.54867 -23.4838 
-15.7214 -6.80975 -23.1925 
-15.7225 -6.81295 -23.4474 
-16.2082 -7.05987 -23.3946 
-16.227 -7.05631 -23.1366 
-17.5864 -7.43108 -23.8768 
-17.56 -7.57619 -23.3806 
-17.2973 -7.47934 -23.4797 
-16.6385 -7.19602 -23.6811 
-16.9946 -7.35477 -23.5863 
-14.4821 -5.77437 -25.2799 
-14.4978 -5.87187 -25.047 
-14.4779 -5.67074 -25.4787 
-14.7045 -5.86039 -25.4238 
-14.7169 -5.95337 -25.2238 
-14.9751 -6.01484 -25.3843 
-14.7101 -6.17552 -24.1927 
-14.9339 -6.32897 -23.9591 
-14.59 -6.0597 -24.4855 
-14.9061 -6.22342 -24.5187 
-15.1059 -6.34929 -24.3331 
-14.7948 -6.12372 -24.7517 
-14.5265 -5.96273 -24.7763 
-14.7393 -6.03743 -24.9932 
-14.9873 -6.09316 -25.1942 
-15.0253 -6.16938 -24.9941 
-15.2694 -6.34895 -24.6425 
-15.3455 -6.28413 -24.9998 
-15.1086 -6.25176 -24.7952 
-15.406 -6.34566 -24.8434 
-16.2157 -6.99662 -23.7449 
-15.7609 -6.7723 -23.7942 
-15.8215 -6.69994 -24.183 
-15.3089 -6.53882 -23.8459 
-15.4267 -6.51413 -24.2338 
-15.5401 -6.46961 -24.5812 
-17.9847 -6.43326 -22.1481 
-17.7974 -6.52406 -22.2683 
-18.1446 -6.30371 -22.026 
-17.643 -6.03138 -22.3745 
-17.5162 -6.09679 -22.4526 
-17.754 -5.93587 -22.2903 
-18.3685 -6.01433 -21.7278 
-18.2747 -6.16691 -21.8883 
-17.9325 -5.71338 -22.0117 
-17.8524 -5.83033 -22.1753 
-17.4517 -5.48041 -22.4848 
-17.5163 -5.39175 -22.3216 
-17.3919 -5.57191 -22.5714 
-17.2792 -5.7374 -22.6373 
-17.3428 -5.67116 -22.6068 
-18.4195 -5.83746 -21.5373 
-18.443 -5.62273 -21.3444 
-17.9888 -5.58368 -21.7817 
-18.0295 -5.42276 -21.5333 
-18.4695 -5.02547 -21.0618 
-18.4545 -5.35658 -21.1767 
-18.0974 -4.93346 -21.1733 
-18.0629 -5.21217 -21.3145 
-17.6996 -5.02568 -21.4882 
-17.7566 -4.79705 -21.32 
-17.6404 -5.18636 -21.756 
-17.5792 -5.30106 -22.0562 
-18.5032 -4.61584 -21.0273 
-18.5344 -4.1608 -21.0492 
-18.1414 -4.56816 -21.1576 
-18.1764 -4.16112 -21.2251 
-18.4658 -3.27984 -21.201 
-18.5414 -3.69346 -21.1033 
-18.1296 -3.4028 -21.4663 
-18.1843 -3.75717 -21.3333 
-17.8903 -3.78852 -21.5233 
-17.8718 -3.49916 -21.6536 
-17.8577 -4.12425 -21.4109 
-17.8112 -4.4785 -21.3187 
-18.249 -2.98597 -21.3535 
-17.9628 -2.77665 -21.5155 
-17.9769 -3.14446 -21.6082 
-17.7693 -2.9596 -21.7313 
-17.4179 -2.49077 -21.7156 
-17.6786 -2.61668 -21.6418 
-17.3421 -2.72579 -21.8297 
-17.5502 -2.82565 -21.8081 
-17.4548 -3.01649 -21.9634 
-17.3034 -2.93717 -21.941 
-17.6119 -3.12811 -21.9173 
-17.765 -3.28401 -21.7994 
-17.202 -2.38364 -21.7204 
-17.0159 -2.30707 -21.665 
-17.1674 -2.64316 -21.7873 
-17.0177 -2.58733 -21.6935 
-16.6847 -2.3277 -21.3942 
-16.8444 -2.27286 -21.5583 
-16.7628 -2.6111 -21.3945 
-16.8843 -2.56784 -21.5609 
-16.9338 -2.81245 -21.5765 
-16.8364 -2.83402 -21.42 
-17.0449 -2.83728 -21.724 
-17.1674 -2.87815 -21.8533 
-16.5341 -2.51825 -21.1668 
-16.4052 -2.79989 -20.9405 
-16.6486 -2.74352 -21.1997 
-16.5499 -2.94853 -21.0243 
-16.2611 -3.50606 -20.7307 
-16.3106 -3.12797 -20.7797 
-16.4336 -3.52925 -20.9204 
-16.4746 -3.20954 -20.9163 
-16.6277 -3.29354 -21.0884 
-16.589 -3.55221 -21.1454 
-16.6865 -3.09106 -21.1412 
-16.7551 -2.93239 -21.2633 
-16.2677 -3.93773 -20.8396 
-16.296 -4.38058 -21.055 
-16.438 -3.91035 -21.0815 
-16.4558 -4.31039 -21.3414 
-16.2812 -5.13032 -21.5997 
-16.3119 -4.79224 -21.3255 
-16.4042 -4.99751 -21.9245 
-16.4552 -4.68693 -21.6419 
-16.5494 -4.57292 -21.9674 
-16.4736 -4.85564 -22.2486 
-16.5763 -4.23362 -21.6478 
-16.5807 -3.87948 -21.3528 
-16.1697 -5.35243 -21.8262 
-16.0323 -5.49672 -22.0143 
-16.271 -5.19969 -22.1312 
-16.1147 -5.32917 -22.2803 
-15.9004 -5.70447 -22.3121 
-15.9242 -5.60135 -22.1732 
-15.9604 -5.50659 -22.4825 
-15.9941 -5.42164 -22.3902 
-16.0438 -5.25195 -22.5896 
-16.0107 -5.32343 -22.6351 
-16.1581 -5.1607 -22.5337 
-16.3222 -5.04008 -22.4287 
-16.0159 -5.84424 -22.4404 
-16.2353 -6.01393 -22.5492 
-16.065 -5.6135 -22.5787 
-16.2676 -5.73527 -22.6645 
-16.8292 -6.37506 -22.6592 
-16.5232 -6.20684 -22.6294 
-16.7949 -5.9779 -22.7472 
-16.5281 -5.86482 -22.7256 
-16.4854 -5.52193 -22.8434 
-16.7183 -5.59302 -22.8677 
-16.2571 -5.44711 -22.7862 
-16.0903 -5.38471 -22.7087 
-17.1031 -6.47069 -22.6165 
-17.3526 -6.51884 -22.523 
-17.0163 -6.05025 -22.7146 
-17.2042 -6.09169 -22.6434 
-17.5854 -6.5446 -22.4001 
-17.3704 -6.11204 -22.5491 
-17.1759 -5.72988 -22.7093 
-17.045 -5.68626 -22.7899 
-16.8986 -5.64422 -22.8462 
-20.3566 2.85483 -19.288 
-19.996 2.83788 -19.648 
-19.9836 2.88327 -19.579 
-20.3741 2.81728 -19.3706 
-20.8256 2.8389 -18.9685 
-20.8498 2.80799 -19.064 
-20.3222 2.87192 -19.1331 
-19.9547 2.90648 -19.4341 
-20.7831 2.85348 -18.8119 
-21.8606 2.9178 -18.5616 
-21.3831 2.82413 -18.8011 
-21.3493 2.8528 -18.6969 
-21.9707 2.89086 -18.6788 
-21.795 2.93939 -18.4125 
-21.2915 2.86952 -18.5457 
-21.241 2.89235 -18.3754 
-21.7071 3.03463 -18.1095 
-21.7459 2.97319 -18.2532 
-21.1974 2.93804 -18.2184 
-20.7366 2.8685 -18.6299 
-20.6924 2.90045 -18.4591 
-19.9182 2.92087 -19.2539 
-20.2387 2.90625 -18.7673 
-20.2799 2.88392 -18.9462 
-19.883 2.93985 -19.0786 
-22.2041 3.12877 -18.3335 
-22.1748 3.2058 -18.1968 
-22.2414 3.08244 -18.4905 
-22.608 3.3332 -18.5728 
-22.5914 3.4243 -18.4374 
-22.6274 3.27341 -18.731 
-22.3781 3.05145 -18.8284 
-22.2927 3.05516 -18.651 
-22.693 3.22028 -19.0879 
-22.6533 3.23704 -18.9031 
-22.9503 3.43558 -19.256 
-23.154 3.58151 -19.8365 
-22.9531 3.39984 -19.4309 
-23.1795 3.63553 -19.6778 
-22.9499 3.48702 -19.0856 
-23.2027 3.70116 -19.5131 
-22.9477 3.66291 -18.7889 
-22.9498 3.56063 -18.9273 
-20.2076 2.95428 -18.6366 
-19.8581 2.97679 -18.9487 
-20.657 2.96578 -18.3365 
-20.188 3.03261 -18.536 
-19.8446 3.04065 -18.8475 
-20.632 3.06409 -18.243 
-21.6725 3.13916 -18.0076 
-21.1605 3.02338 -18.1071 
-21.6439 3.27793 -17.9295 
-21.1322 3.14318 -18.0227 
-21.114 3.29224 -17.9463 
-21.6113 3.62278 -17.7746 
-21.6229 3.44209 -17.8578 
-21.108 3.46539 -17.859 
-20.619 3.19497 -18.1598 
-20.6196 3.358 -18.068 
-19.8439 3.14038 -18.758 
-20.1886 3.29853 -18.3525 
-20.1812 3.14583 -18.4474 
-19.8573 3.28494 -18.6637 
-22.1473 3.3252 -18.0966 
-22.5739 3.55457 -18.3337 
-22.1227 3.47644 -18.0179 
-22.5561 3.71319 -18.2493 
-22.0873 3.83221 -17.8635 
-22.1023 3.64896 -17.9452 
-20.8649 5.2802 -17.7727 
-20.7385 5.19253 -18.0424 
-20.6853 5.24122 -18.0471 
-20.9328 5.20955 -17.7932 
-20.7104 5.30058 -17.7434 
-20.5418 5.2382 -18.0531 
-20.3407 5.22923 -18.0486 
-20.2587 5.35595 -17.6682 
-20.4986 5.31205 -17.7078 
-20.1151 5.26009 -18.0214 
-20.0201 5.47364 -17.6272 
-19.8978 5.37656 -17.9597 
-20.24 5.64924 -17.2958 
-19.7941 5.62529 -17.5881 
-19.7023 5.53685 -17.8809 
-19.9723 5.78646 -17.3047 
-19.5168 6.32572 -17.089 
-19.4981 6.11854 -17.1915 
-19.7076 5.905 -17.3249 
-19.4583 5.96856 -17.3425 
-19.5417 5.69921 -17.8024 
-19.4259 5.87121 -17.5299 
-19.5923 5.77109 -17.5545 
-19.4294 5.82187 -17.7415 
-19.3065 5.88583 -17.5179 
-19.3786 5.86307 -17.7158 
-19.2369 5.94082 -17.3435 
-19.2205 5.81971 -17.5206 
-19.368 5.82599 -17.7234 
-19.0416 5.8304 -17.3363 
-19.0779 6.20304 -17.1122 
-19.1631 6.04192 -17.2044 
-18.6566 5.99799 -17.0947 
-18.8481 5.88189 -17.1884 
-18.5635 5.65231 -17.1577 
-17.9486 5.41819 -17.0052 
-18.2733 5.72993 -17.0534 
-18.3198 5.36703 -17.1264 
-18.8703 5.64596 -17.3293 
-18.721 5.39612 -17.3311 
-19.3765 5.71383 -17.7623 
-19.0946 5.46414 -17.5792 
-19.1543 5.67756 -17.5403 
-19.3828 5.52977 -17.8307 
-18.9747 6.43807 -17.0787 
-18.8605 6.72416 -17.1155 
-18.4838 6.20251 -17.0731 
-18.3276 6.46971 -17.1287 
-18.6284 7.35796 -17.4474 
-18.7427 7.03841 -17.2345 
-18.0563 7.08919 -17.4917 
-18.1858 6.77384 -17.2665 
-17.6895 6.47146 -17.2937 
-17.1357 6.49159 -17.5915 
-17.5508 6.78932 -17.5413 
-17.2792 6.16234 -17.3172 
-17.8482 6.16917 -17.1265 
-17.4489 5.85056 -17.1171 
-17.6652 5.59094 -17.0076 
-18.0389 5.9121 -17.0447 
-19.8411 5.68861 -18.6193 
-19.701 5.74521 -18.4715 
-20.0017 5.61897 -18.7322 
-19.6656 5.43858 -18.667 
-19.6416 5.63159 -18.4863 
-19.7457 5.58376 -18.6295 
-19.5991 5.47331 -18.5343 
-19.7738 5.4048 -18.769 
-19.8839 5.53104 -18.74 
-20.0368 5.47355 -18.7994 
-20.0647 5.32957 -18.8013 
-19.9111 5.36934 -18.8204 
-20.1848 5.4114 -18.7895 
-20.2778 5.45069 -18.7883 
-18.7788 3.96188 -18.3583 
-19.2144 4.34035 -18.45 
-19.1445 4.04663 -18.7262 
-18.8291 4.22654 -18.0809 
-18.3285 3.89986 -17.96 
-18.3512 4.13135 -17.6911 
-18.7384 3.74144 -18.668 
-19.074 3.78499 -19.0227 
-18.327 3.72232 -18.2721 
-17.4052 3.99787 -17.3681 
-17.8483 4.10047 -17.3531 
-17.8513 3.89904 -17.6052 
-17.3879 4.17961 -17.1396 
-17.4597 3.87408 -17.6498 
-17.8855 3.7568 -17.9083 
-17.9343 3.65757 -18.2134 
-17.5994 3.72684 -18.1837 
-17.5312 3.78986 -17.9375 
-17.9815 3.58514 -18.4718 
-18.3376 3.58856 -18.5808 
-18.351 3.48845 -18.8395 
-19.0092 3.56267 -19.3041 
-18.684 3.42598 -19.2172 
-18.7072 3.56341 -18.9682 
-18.9565 3.38691 -19.5352 
-17.0477 4.23483 -17.3226 
-17.0376 4.41447 -17.1231 
-16.7615 4.56524 -17.4309 
-16.7725 4.75486 -17.2621 
-17.0955 4.10334 -17.5701 
-16.7851 4.40884 -17.638 
-16.3335 5.32778 -17.9581 
-16.5673 5.15059 -17.5149 
-16.5292 4.94444 -17.6553 
-16.397 5.55147 -17.8399 
-16.2946 5.10563 -18.0932 
-16.5208 4.75485 -17.8227 
-16.5339 4.58152 -17.9946 
-16.2834 4.69509 -18.3576 
-16.2786 4.89231 -18.2311 
-16.5609 4.42416 -18.1485 
-16.8291 4.27725 -17.8513 
-16.8793 4.16202 -18.0387 
-17.2287 3.92436 -18.0449 
-17.1622 4.00489 -17.8246 
-18.5221 2.92835 -19.0658 
-18.8319 3.00171 -19.6089 
-18.7737 2.87478 -19.4175 
-18.5862 3.06795 -19.2827 
-18.225 3.00409 -18.6813 
-18.2923 3.15482 -18.907 
-18.4455 2.75707 -18.8072 
-18.7051 2.72138 -19.1884 
-18.1434 2.8169 -18.413 
-17.545 3.22103 -18.0983 
-17.9641 3.26132 -18.5521 
-17.8952 3.10173 -18.335 
-17.6154 3.38646 -18.2884 
-17.4557 3.0145 -17.8733 
-17.8098 2.90225 -18.0777 
-17.7203 2.66845 -17.8346 
-17.2724 2.48892 -17.5214 
-17.3605 2.76957 -17.6641 
-17.6386 2.40591 -17.66 
-18.0592 2.60052 -18.1568 
-17.9839 2.36223 -17.9674 
-18.6359 2.54928 -18.9671 
-18.2994 2.35123 -18.3713 
-18.3676 2.56204 -18.5584 
-18.5763 2.36626 -18.7993 
-17.187 3.36172 -18.0424 
-17.26 3.52923 -18.1862 
-16.8385 3.52327 -18.1347 
-16.914 3.68967 -18.2228 
-17.092 3.15504 -17.8717 
-16.7374 3.32162 -18.0291 
-16.2384 3.90691 -18.6346 
-16.5938 3.8678 -18.3755 
-16.5166 3.70518 -18.3429 
-16.3155 4.06364 -18.6216 
-16.1292 3.72404 -18.6467 
-16.4103 3.51204 -18.302 
-16.2931 3.27562 -18.2786 
-15.8927 3.20411 -18.7445 
-16.0074 3.49609 -18.677 
-16.1836 2.98318 -18.2986 
-16.6271 3.07789 -17.9406 
-16.5243 2.78522 -17.9039 
-16.8941 2.61791 -17.6238 
-16.9895 2.90763 -17.7176 
-19.7493 4.49422 -19.154 
-19.7044 4.53409 -19.2404 
-19.628 4.26024 -19.4125 
-19.6603 4.55711 -19.2617 
-19.5615 4.23961 -19.3544 
-19.6223 4.5639 -19.2308 
-19.5929 4.257 -19.4015 
-19.5957 4.55513 -19.1607 
-19.5104 3.91649 -19.5374 
-19.5485 3.94119 -19.5607 
-19.4992 3.64581 -19.6995 
-19.4032 3.36645 -19.826 
-19.4538 3.61553 -19.6984 
-19.455 3.40018 -19.8091 
-19.4792 3.00164 -19.912 
-19.5109 3.08408 -19.7892 
-19.5115 3.02618 -19.8471 
-19.4827 3.06641 -19.8719 
-19.4354 2.95985 -19.9552 
-19.4416 3.02912 -19.9279 
-19.4755 2.93363 -19.9562 
-19.5121 2.96629 -19.9087 
-19.4287 2.8855 -19.9859 
-19.309 2.86906 -19.9626 
-19.3884 2.98535 -19.9607 
-19.379 2.91195 -19.9733 
-19.324 2.9482 -19.9741 
-19.2922 2.77961 -19.9471 
-19.3687 2.8311 -19.9867 
-19.3577 2.74557 -20.0028 
-19.2578 2.58317 -19.9331 
-19.2747 2.6832 -19.9349 
-19.3461 2.65812 -20.0234 
-19.4213 2.80832 -20.018 
-19.4129 2.73056 -20.0495 
-19.5109 2.90414 -19.9637 
-19.4641 2.79337 -20.0346 
-19.4707 2.86374 -19.9988 
-19.5062 2.83944 -20.0014 
-18.4256 1.3876 -18.7355 
-18.5868 1.68495 -18.9429 
-18.6781 1.56833 -19.0947 
-18.3122 1.53362 -18.5559 
-18.1218 1.20781 -18.4143 
-17.9914 1.39101 -18.2104 
-18.5625 1.26569 -18.9304 
-18.7885 1.47166 -19.2595 
-18.2797 1.05253 -18.6347 
-17.3852 0.960648 -18.1361 
-17.6333 1.27944 -17.9724 
-17.7729 1.05636 -18.1937 
-17.2468 1.22124 -17.9078 
-17.5568 0.734307 -18.3779 
-17.9433 0.864604 -18.431 
-18.1071 0.696557 -18.6651 
-17.85 0.357192 -18.8321 
-17.7242 0.535421 -18.6157 
-18.2267 0.544605 -18.8765 
-18.431 0.916437 -18.8521 
-18.5418 0.790776 -19.0471 
-18.8959 1.3852 -19.4215 
-18.793 1.05566 -19.2935 
-18.6945 1.15825 -19.1224 
-18.9785 1.29922 -19.5651 
-16.9651 0.948074 -18.3039 
-16.8407 1.23874 -18.0825 
-16.5404 0.997899 -18.6389 
-16.4381 1.31316 -18.4324 
-17.1234 0.694052 -18.5338 
-16.6767 0.721747 -18.8473 
-15.7896 1.20178 -19.5774 
-16.0621 1.42569 -18.8937 
-16.1393 1.08938 -19.0828 
-15.7357 1.55754 -19.4024 
-15.877 0.892611 -19.74 
-16.2501 0.795297 -19.2665 
-16.3797 0.534425 -19.4411 
-16.1242 0.370532 -20.0318 
-15.991 0.619151 -19.8912 
-16.513 0.297759 -19.6028 
-16.823 0.477079 -19.0486 
-16.9554 0.256274 -19.234 
-17.4137 0.268583 -18.9641 
-17.2837 0.469836 -18.7585 
-18.7202 0.642229 -19.7281 
-18.9401 0.948873 -19.8625 
-18.8871 0.90282 -19.8999 
-18.7502 0.683075 -19.6696 
-18.5009 0.348637 -19.5888 
-18.5006 0.385447 -19.506 
-18.7229 0.619829 -19.7764 
-18.8543 0.87429 -19.929 
-18.5481 0.331103 -19.6593 
-18.0055 -0.206108 -19.5303 
-18.2155 0.0930243 -19.407 
-18.2543 0.054904 -19.5126 
-17.9191 -0.157156 -19.4082 
-18.1617 -0.234775 -19.6382 
-18.3532 0.0367057 -19.6044 
-18.5232 0.0212963 -19.6691 
-18.7092 -0.301511 -19.7494 
-18.3941 -0.26072 -19.7164 
-18.775 -0.00845599 -19.6936 
-18.6587 0.318277 -19.7084 
-18.849 0.295585 -19.7269 
-18.8695 0.855565 -19.9496 
-18.9161 0.586188 -19.8245 
-18.7808 0.60483 -19.81 
-18.9607 0.838928 -19.9616 
-17.7799 -0.401539 -19.6726 
-17.6356 -0.328054 -19.5448 
-17.5772 -0.535539 -19.9182 
-17.3699 -0.430233 -19.792 
-17.9968 -0.454746 -19.7875 
-17.8561 -0.620782 -20.0335 
-17.2408 -0.635841 -20.6332 
-17.1272 -0.474249 -20.125 
-17.3975 -0.612256 -20.2456 
-16.9126 -0.470664 -20.5189 
-17.6363 -0.781347 -20.7415 
-17.7368 -0.730458 -20.3577 
-18.1481 -0.833315 -20.453 
-18.6345 -1.01231 -20.9188 
-18.1004 -0.906923 -20.8385 
-18.6346 -0.925286 -20.5229 
-18.2104 -0.695857 -20.1259 
-18.6438 -0.770658 -20.1832 
-18.6671 -0.559156 -19.919 
-18.2911 -0.502382 -19.8745 
-21.2706 2.30404 -18.6037 
-21.9309 2.56838 -18.7156 
-21.8056 2.38053 -18.6273 
-21.3182 2.46308 -18.6821 
-20.7117 2.22654 -18.7191 
-20.7552 2.39231 -18.7954 
-21.2067 2.10836 -18.5343 
-21.7293 2.18132 -18.542 
-20.6648 2.03445 -18.6704 
-19.8148 2.1582 -19.1746 
-20.2532 2.34958 -18.9905 
-20.209 2.17384 -18.924 
-19.8604 2.34102 -19.2241 
-19.7753 1.96271 -19.1768 
-20.1683 1.98017 -18.9007 
-20.1337 1.77007 -18.9107 
-19.731 1.56075 -19.2681 
-19.7461 1.76131 -19.2136 
-20.1077 1.54503 -18.9446 
-20.6212 1.81391 -18.6511 
-20.5796 1.55942 -18.6619 
-21.6627 1.93618 -18.4809 
-21.092 1.59007 -18.481 
-21.1503 1.87516 -18.4896 
-21.5901 1.62314 -18.4629 
-22.8537 2.5288 -19.6069 
-23.0727 2.76922 -20.1501 
-23.0594 2.60752 -20.0776 
-22.8842 2.68547 -19.7083 
-22.5801 2.47301 -19.1843 
-22.6375 2.62819 -19.3106 
-22.8137 2.32902 -19.5287 
-23.0297 2.40029 -20.0204 
-22.527 2.27717 -19.0887 
-22.3331 2.59031 -18.9743 
-22.2364 2.43022 -18.8393 
-22.1674 2.23276 -18.7433 
-22.1 1.9793 -18.6801 
-22.019 1.6448 -18.6687 
-22.4639 2.01665 -19.0347 
-22.3794 1.66581 -19.0394 
-22.9775 2.12243 -20.0007 
-22.6718 1.69691 -19.5164 
-22.7559 2.06032 -19.4923 
-22.8967 1.74885 -20.0406 
-20.7022 -0.0335684 -18.959 
-21.1374 -0.0302422 -18.8583 
-21.0122 -0.295119 -18.9987 
-20.7811 0.184869 -18.8261 
-20.3996 0.263865 -19.0908 
-20.4281 0.431288 -18.9695 
-20.6 -0.170572 -19.0963 
-20.8617 -0.464203 -19.1388 
-20.3491 0.160884 -19.2185 
-19.8922 0.834111 -19.618 
-20.104 0.683384 -19.2243 
-20.1233 0.564114 -19.3314 
-19.8344 0.915525 -19.5262 
-19.9317 0.78601 -19.7142 
-20.122 0.49235 -19.4446 
-20.0723 0.45984 -19.5546 
-19.8384 0.762661 -19.8791 
-19.9235 0.76445 -19.8046 
-19.9467 0.458331 -19.6524 
-20.2498 0.112514 -19.3453 
-20.0751 0.108924 -19.4641 
-20.6599 -0.550843 -19.2766 
-20.2206 -0.246377 -19.3662 
-20.4482 -0.237666 -19.2336 
-20.3805 -0.568389 -19.4104 
-21.8343 -0.677004 -20.2569 
-22.2595 -0.327528 -20.7008 
-22.0393 -0.67915 -20.8333 
-22.0404 -0.336432 -20.1203 
-21.5882 -0.614105 -19.7145 
-21.7751 -0.290268 -19.574 
-21.5891 -0.906469 -20.3636 
-21.7747 -0.920362 -20.9266 
-21.3676 -0.828348 -19.8357 
-21.4714 -0.188413 -19.1305 
-21.3108 -0.487721 -19.2728 
-21.1214 -0.682194 -19.4063 
-20.877 -0.787156 -19.5315 
-20.5519 -0.817929 -19.6488 
-21.0877 -0.950147 -19.9402 
-20.723 -0.996654 -20.0302 
-21.442 -1.07034 -20.9864 
-20.8822 -1.10622 -20.5036 
-21.28 -1.04336 -20.4445 
-21.0177 -1.14827 -21.0179 
-19.8908 -0.208227 -19.4896 
-19.9976 -0.53019 -19.5383 
-19.798 0.140282 -19.5679 
-19.5075 -0.142801 -19.5927 
-19.5592 -0.458284 -19.6466 
-19.4683 0.191742 -19.6504 
-19.6471 0.773871 -19.9279 
-19.7174 0.479571 -19.7288 
-19.402 0.793424 -19.955 
-19.4352 0.514199 -19.7833 
-19.1512 0.552858 -19.8154 
-19.1557 0.816662 -19.9648 
-19.1354 0.248459 -19.7055 
-19.1137 -0.374712 -19.7215 
-19.1193 -0.0696828 -19.6644 
-20.3708 -1.11357 -20.5451 
-20.4782 -1.17333 -21.0268 
-20.248 -0.985017 -20.1083 
-19.7938 -1.07768 -20.5649 
-19.87 -1.15362 -21.0131 
-19.7109 -0.932178 -20.1657 
-20.1201 -0.789839 -19.7587 
-19.6299 -0.723562 -19.8486 
-19.1295 -0.639775 -19.9062 
-19.1601 -0.855078 -20.1936 
-19.2399 -1.09724 -20.977 
-19.1991 -1.01083 -20.5588 
-19.3429 2.26535 -20.234 
-19.3618 2.3855 -20.1831 
-19.3223 2.13422 -20.2911 
-19.2177 2.07944 -20.137 
-19.2991 2.29033 -20.1701 
-19.2878 2.18068 -20.2239 
-19.217 2.18058 -20.0764 
-19.2208 1.9785 -20.2011 
-19.2762 2.06539 -20.2814 
-19.264 1.94857 -20.3395 
-19.2232 1.77867 -20.3246 
-19.2235 1.87812 -20.2649 
-19.2508 1.83433 -20.3947 
-19.3009 1.99977 -20.3501 
-19.2798 1.86962 -20.4069 
-19.3173 1.41504 -20.5649 
-19.3556 1.42728 -20.4405 
-19.4182 1.37128 -20.4792 
-19.2851 1.47056 -20.5349 
-19.2165 1.43224 -20.5926 
-19.2198 1.48563 -20.5692 
-19.3515 1.37152 -20.5785 
-19.4781 1.3295 -20.504 
-19.22 1.3893 -20.5993 
-19.0638 1.38938 -20.4958 
-19.1657 1.47421 -20.5489 
-19.128 1.42348 -20.5677 
-19.1284 1.43807 -20.4797 
-19.0111 1.35203 -20.4982 
-19.1007 1.38306 -20.5708 
-19.5051 1.29634 -20.5027 
-23.3797 3.89372 -19.9727 
-23.4892 4.07257 -20.4697 
-23.2909 3.75672 -20.284 
-23.3369 3.82165 -20.1366 
-23.372 3.9224 -20.7714 
-23.4309 3.9969 -20.6363 
-23.4698 4.16424 -21.1805 
-23.3911 4.21812 -21.91 
-23.4051 4.07547 -21.2969 
-23.4598 4.33632 -21.762 
-23.5394 4.24558 -21.0094 
-23.5379 4.42304 -21.5946 
-23.6119 4.51035 -21.4246 
-17.4202 7.09308 -17.8642 
-16.9977 6.80358 -17.9235 
-17.9369 7.38999 -17.8093 
-17.3073 7.37644 -18.2554 
-16.8772 7.09381 -18.3145 
-17.8348 7.66882 -18.2042 
-18.5251 7.65993 -17.7658 
-16.1157 4.42831 -18.8874 
-16.0954 4.27722 -18.9384 
-16.3409 4.21318 -18.589 
-16.1024 4.58788 -18.8231 
-16.3322 4.36317 -18.5351 
-15.9457 4.64793 -19.256 
-15.9303 4.49653 -19.3146 
-15.9286 4.81371 -19.1876 
-16.0566 4.95915 -18.6494 
-16.3072 4.52126 -18.4584 
-16.0759 4.7626 -18.7441 
-15.8836 5.21123 -19.0172 
-15.9007 4.99958 -19.1082 
-15.7827 5.22527 -19.5399 
-15.711 5.65898 -19.9538 
-15.7674 5.4462 -19.4542 
-15.7225 5.43277 -20.0282 
-15.8102 5.03217 -19.6153 
-15.7463 5.23477 -20.0933 
-15.8172 4.70955 -19.7389 
-15.7629 5.0602 -20.1502 
-15.8288 4.86192 -19.6814 
-15.7898 3.73456 -19.0814 
-15.6721 3.44034 -19.1784 
-15.9127 3.95541 -19.0196 
-15.6361 3.97399 -19.4964 
-15.5184 3.67664 -19.6094 
-15.7566 4.18967 -19.4197 
-16.0212 4.12794 -18.9772 
-15.861 4.35381 -19.3641 
-15.754 4.57007 -19.7886 
-15.6566 4.41037 -19.8462 
-15.4282 3.89777 -20.0463 
-15.5422 4.19731 -19.9269 
-15.6944 0.708534 -20.354 
-15.8267 0.452088 -20.4821 
-15.591 0.991595 -20.216 
-15.4859 0.816749 -20.8247 
-15.6165 0.555507 -20.9464 
-15.3895 1.10681 -20.693 
-15.4819 1.68994 -19.8945 
-15.5193 1.31437 -20.0642 
-15.3012 1.83319 -20.3749 
-15.3277 1.44064 -20.5451 
-15.2138 1.59411 -21.0215 
-15.1938 1.99765 -20.8484 
-15.1767 1.78829 -21.4952 
-15.2697 1.2528 -21.1691 
-15.2292 1.44414 -21.6429 
-15.4896 0.693866 -21.4172 
-15.3176 1.14638 -21.771 
-15.3616 0.957974 -21.2986 
-15.442 0.880247 -21.8872 
-18.0633 -0.908851 -21.2648 
-18.6388 -1.02099 -21.3516 
-17.552 -0.771025 -21.1663 
-18.0404 -0.836849 -21.7251 
-18.6492 -0.948973 -21.8178 
-17.4893 -0.696018 -21.623 
